-2.8983 3.8446 -0.57994
-2.5954 1.8819 0.60773
-2.9791 -2.1056 -0.93603
3.6372 -2.2599 0.95939
3.3021 3.6513 0.38473
3.1669 0.85925 -0.6954
-2.9427 2.1088 -0.92512
-3.0594 -2.0991 0.9571
2.713 -1.4986 -0.43464
-0.97661 3.4607 0.91468
-4.1916 -1.2189 -0.93093
0.65976 -3.2705 0.74804
-1.7217 3.2567 -0.94868
2.7522 1.877 -0.74353
-4.6451 1.7825 -0.22072
4.2326 0.782 0.95259
-1.4387 -2.8408 -0.57848
3.7173 3.1383 0.50201
0.94554 2.8878 -0.27546
-4.4863 -0.86052 -0.823
-3.4601 -3.5642 0.25294
-2.4682 2.5121 0.87824
-2.9399 -2.3237 -0.96756
2.6408 -3.8139 -0.76927
-0.89211 -2.8643 -0.0056461
-3.9091 3.1167 -0.032921
-2.7882 -1.3523 0.43349
0.005532 3.8912 0.99407
-0.42761 -2.9839 0.16913
-2.5075 3.7743 0.84716
3.9985 2.1537 0.8406
-1.2522 3.6777 0.99337
-1.2596 3.8436 -0.999
3.1919 0.46904 -0.63342
2.2291 4.4516 -0.20627
2.6612 -3.1792 -0.98928
-1.7288 -2.5768 -0.442
1.8916 -2.3906 0.30768
-0.4945 3.7367 0.97302
3.1871 -2.4419 -0.99989
1.2365 4.6684 0.55874
4.6625 -1.0678 0.62173
-3.3534 2.0014 -0.9955
0.43395 3.3612 0.79172
1.3018 -2.8416 -0.48524
-2.365 2.8426 0.95325
-3.7736 -0.036137 -0.97408
-0.049104 -3.3599 0.76856
1.8708 -3.3112 -0.98043
-3.9402 3.0774 -0.029378
3.9953 2.7757 0.50199
-0.29159 3.0058 0.19844
1.2586 -4.6645 0.55585
3.546 -1.4855 -0.98786
-4.4118 -2.0174 -0.52493
4.4926 -1.8437 0.51667
-2.4636 -1.7256 -0.12503
3.0454 -0.23098 -0.3247
0.27932 -3.5929 -0.91813
1.4536 3.395 0.95172
-3.1802 -0.33634 -0.59729
-2.7492 -3.3297 0.94811
2.3431 -2.5283 -0.83324
-2.9765 -2.166 -0.94782
3.0319 -0.0062984 0.25063
3.1306 3.2993 0.83636
-0.83929 3.0033 0.47189
-3.1432 0.45986 -0.56755
2.4445 2.5895 0.89849
0.61465 4.4435 -0.87409
1.9797 4.2818 0.69675
-1.879 -3.5228 0.99997
-2.2571 4.3764 -0.38206
0.86753 -3.3278 -0.82782
-3.8515 -1.1456 -0.99983
0.53292 4.3405 -0.92778
-1.917 -4.5681 0.2996
2.992 0.95314 0.51061
-3.4533 -1.6944 -0.98816
4.6385 -0.18189 0.76667
-2.1683 2.5237 -0.73987
-3.7494 -1.4497 0.9998
4.0704 -2.001 -0.84442
-0.28019 4.5094 -0.85535
1.5073 -2.6436 0.2906
1.4554 2.862 0.6141
3.6203 -3.4065 -0.23897
-0.92533 4.9123 0.051363
1.8705 -2.5924 0.59569
1.0476 -2.8143 0.076754
1.2179 3.0273 -0.67597
4.8604 -0.65877 0.42584
-0.1083 4.6231 0.78117
0.61261 -3.3788 -0.82434
1.5645 -3.8953 0.98025
-4.7323 0.06087 0.68056
4.2837 -2.5072 0.26773
3.629 2.671 0.86252
1.9738 2.2624 -0.069724
2.9398 -3.6311 -0.74061
4.0739 0.47949 -0.99479
-0.6328 -4.6184 0.74991
2.0001 -4.4929 0.39669
2.6312 2.3558 -0.8836
-2.9985 0.21597 0.11156
-1.7245 2.4553 0.028786
0.54011 -3.571 0.9215
-0.78162 3.4674 0.89524
2.1815 -4.3219 -0.54059
1.4169 2.699 0.307
2.614 -3.0164 -0.99996
3.9297 -1.9696 0.91839
1.7581 4.5319 0.50862
4.055 1.3275 0.96377
-2.9267 -0.91951 -0.36178
3.467 0.20758 -0.85
2.3295 -4.3426 -0.37272
4.1703 -2.7003 0.25018
-1.2519 -4.3393 0.85642
0.12881 3.0719 0.37906
-3 -1.8836 0.88909
4.4919 -1.8145 0.53547
3.4614 -2.6675 -0.92904
-2.5075 -1.9762 0.59002
0.90507 -3.3183 -0.82819
1.5908 -2.6454 -0.40775
-4.6471 -1.8447 0.019614
3.4191 0.014933 -0.81398
-0.028769 3.5907 0.91244
-3.5489 1.6172 0.99499
-2.7475 1.2792 0.24596
2.3261 -2.3193 -0.69889
3.9358 1.7813 -0.94739
-1.645 2.5955 -0.37492
2.2067 4.4732 0.15522
0.10637 4.2688 -0.96281
-0.53557 -3.8181 0.9895
-1.0561 4.3149 -0.89689
0.28789 3.612 -0.9264
2.0486 2.4656 -0.60744
0.59284 3.1872 0.65207
2.0245 -4.4802 0.40023
-3.6065 3.4631 -0.0088379
-1.7566 -2.9922 -0.84782
3.7991 -1.621 0.99145
-4.3297 2.1556 0.54773
-3.2029 -2.4896 0.99839
4.7307 -0.91523 -0.57465
-2.773 3.1593 0.97903
-1.5403 -2.584 0.12831
-1.916 4.4465 -0.53991
3.2728 -2.8593 0.93826
-0.86177 2.9288 0.32102
-0.91717 3.13 -0.67441
2.6451 -1.7474 -0.55799
-3.4922 0.15623 -0.86353
1.0347 3.749 0.99384
3.0714 0.50268 0.46032
2.069 3.7752 -0.95236
-1.5861 4.6477 -0.41259
2.9299 -0.72409 0.18911
0.7669 -3.5722 0.93808
-1.4244 -2.7214 0.37179
1.9699 -3.0731 0.93686
-3.378 1.8335 0.98768
-1.3308 -4.4487 0.76547
-4.4696 0.52797 0.86565
1.2875 -2.7105 0.03802
-4.4847 1.8613 0.51758
3.1203 -3.7731 -0.44367
4.5883 0.25677 0.80335
4.5319 -0.11304 0.84594
-0.59897 3.7511 -0.97951
3.4671 0.74112 -0.89071
1.9446 2.7521 0.77641
-4.803 0.61915 0.53825
3.8283 -3.2142 0.051801
-0.68844 3.2303 0.71691
0.90187 -4.1413 -0.97117
1.4648 2.6802 0.32519
-0.56409 -4.7772 0.58588
0.09219 4.3427 -0.9391
3.0137 1.7025 -0.84249
1.8342 -2.4299 0.29486
-1.173 -2.7849 -0.20809
2.9102 -0.78415 -0.16676
3.2994 -0.31072 -0.7276
-3.3144 -0.7348 -0.79614
3.6189 -2.427 0.93395
-4.2729 0.63147 -0.94764
3.3302 -2.7666 0.94418
3.116 0.47047 0.52895
2.8234 2.9588 0.99596
-0.22693 -3.8543 0.99028
-3.8718 3.1614 0.054439
-3.8459 3.0366 -0.43553
-2.4129 -1.7962 -0.1267
2.9913 0.45232 0.2235
-2.2916 1.953 -0.1473
3.2623 1.2151 0.85489
-1.2991 -3.2556 0.86901
-4.9563 -0.6385 -0.073523
2.6757 1.3864 0.16439
-3.3096 2.2111 -0.99981
-3.1852 1.4936 -0.87618
-2.3103 -3.6059 -0.95925
0.76135 3.783 0.98999
3.3073 1.8478 0.97738
-3.7177 0.76571 -0.97891
-0.58778 -4.3598 0.91685
-3.3959 -2.9556 -0.86486
3.6372 -2.6218 0.87529
-0.086564 4.9564 -0.28944
0.71511 3.761 -0.98516
0.41551 4.6463 0.74698
1.6981 -4.2787 -0.79744
-1.4462 -4.6915 -0.41613
2.2255 -2.1296 -0.39244
-0.77497 -3.0999 0.59375
-1.6255 -2.6003 0.35874
-3.4375 1.3716 -0.95427
-3.6345 -1.5133 0.99801
4.9747 -0.30322 0.1783
4.7702 -1.3109 -0.32115
-2.5941 4.2741 -0.024069
2.3419 3.4674 -0.98289
-4.3347 2.4877 -0.066544
-2.8288 -1.008 0.078127
4.612 0.87234 0.72023
2.0247 -2.2475 0.22202
3.1149 -2.4346 -0.99892
-3.5365 0.062437 -0.88637
1.1899 4.5495 -0.71163
-0.71926 -3.9875 -0.99866
-1.0126 -3.0977 -0.6715
-3.7284 0.93864 0.98787
1.6668 3.0589 0.8563
1.2419 -4.3387 -0.85842
2.4816 -2.0927 0.65712
3.0479 3.8051 0.48366
4.333 -1.7259 -0.74768
3.0813 0.0050503 0.39499
-4.1439 1.6768 0.88253
4.9873 0.35053 0.026992
0.3327 3.4088 -0.81814
-0.8856 -3.1965 0.7303
-1.13 -3.0878 0.70221
-0.29096 3.0533 0.36027
-1.3907 2.664 -0.10114
3.075 2.0403 0.95083
2.9071 0.77762 0.13579
0.29133 -4.9907 0.03924
-2.0279 3.9878 0.88062
-3.6354 -0.50159 0.94391
3.7854 -1.1805 -0.9994
-1.5237 -2.73 -0.48666
-3.6456 0.6216 -0.95337
-2.5629 -3.4984 -0.94159
-2.3247 -3.9669 -0.80162
0.58956 4.7019 0.67404
1.1663 -3.2466 -0.83499
-4.0179 -0.070317 -0.99983
-3.3901 1.4916 -0.9551
-0.81724 -3.1045 -0.61349
-4.6745 -1.6917 0.23813
-0.13636 4.3357 0.9412
3.1294 1.5995 0.87424
-2.8609 -1.7931 -0.78174
-1.9261 -3.7361 0.9791
-4.1573 -2.5661 0.46465
-4.8811 -1.0493 -0.12166
-4.2053 0.73078 0.96332
-2.2341 4.4669 -0.10503
-2.9319 1.3575 -0.63922
0.37506 -3.9951 0.99992
3.0056 -0.066813 -0.11259
-0.35509 3.7518 -0.97285
1.0288 -3.8013 0.99808
3.1509 3.5564 0.65983
2.9726 0.67498 -0.30704
-4.0198 1.1968 0.98097
-3.3395 -1.395 0.92466
0.59744 4.9499 -0.16801
2.2332 2.8702 0.93164
-2.1861 -4.4339 -0.33135
-1.9184 2.5032 0.53284
-4.9871 -0.32862 0.064882
-1.2364 -3.4145 0.92962
-3.7676 -2.5706 0.82781
-4.9956 -0.1919 -0.037172
0.50334 -3.0066 0.30759
-1.2038 -2.7916 -0.28031
-1.6589 3.5546 0.997
2.3391 -4.1224 -0.67282
-2.5497 -4.0639 0.60324
-3.7971 -2.3127 -0.89507
3.0806 0.37106 0.44177
2.534 -4.1674 -0.47985
2.2744 1.9799 -0.1751
2.5226 -3.9519 -0.72537
